    0.9333646931993099E+00  0.3535421889214720E+00 -0.06195377423185971E+00 
    0.9333646931993099E+00 -0.3535421889214720E+00  0.06195377423185971E+00 
    0.9333646931993099E+00 -0.06195377423185971E+00 -0.3535421889214720E+00 
    0.9333646931993099E+00  0.06195377423185971E+00  0.3535421889214720E+00 
   -0.9333646931993099E+00  0.3535421889214720E+00  0.06195377423185971E+00 
   -0.9333646931993099E+00 -0.3535421889214720E+00 -0.06195377423185971E+00 
   -0.9333646931993099E+00 -0.06195377423185971E+00  0.3535421889214720E+00 
   -0.9333646931993099E+00  0.06195377423185971E+00 -0.3535421889214720E+00 
   -0.06195377423185971E+00  0.9333646931993099E+00 0.3535421889214720E+00 
    0.06195377423185971E+00  0.9333646931993099E+00 -0.3535421889214720E+00 
   -0.3535421889214720E+00  0.9333646931993099E+00 -0.06195377423185971E+00 
    0.3535421889214720E+00  0.9333646931993099E+00  0.06195377423185971E+00 
    0.06195377423185971E+00 -0.9333646931993099E+00  0.3535421889214720E+00 
   -0.06195377423185971E+00 -0.9333646931993099E+00 -0.3535421889214720E+00 
    0.3535421889214720E+00 -0.9333646931993099E+00 -0.06195377423185971E+00 
   -0.3535421889214720E+00 -0.9333646931993099E+00  0.06195377423185971E+00 
    0.3535421889214720E+00 -0.06195377423185971E+00  0.9333646931993099E+00 
   -0.3535421889214720E+00  0.06195377423185971E+00  0.9333646931993099E+00 
   -0.06195377423185971E+00 -0.3535421889214720E+00  0.9333646931993099E+00 
    0.06195377423185971E+00  0.3535421889214720E+00  0.9333646931993099E+00 
    0.3535421889214720E+00  0.06195377423185971E+00 -0.9333646931993099E+00 
   -0.3535421889214720E+00 -0.06195377423185971E+00 -0.9333646931993099E+00 
   -0.06195377423185971E+00  0.3535421889214720E+00 -0.9333646931993099E+00 
    0.06195377423185971E+00 -0.3535421889214720E+00 -0.9333646931993099E+00 
    0.7068416977125503E+00  0.6397400986197920E+00  0.3018400579657685E+00 
    0.7068416977125503E+00 -0.6397400986197920E+00 -0.3018400579657685E+00 
    0.7068416977125503E+00  0.3018400579657685E+00 -0.6397400986197920E+00 
    0.7068416977125503E+00 -0.3018400579657685E+00  0.6397400986197920E+00 
   -0.7068416977125503E+00  0.6397400986197920E+00 -0.3018400579657685E+00 
   -0.7068416977125503E+00 -0.6397400986197920E+00  0.3018400579657685E+00 
   -0.7068416977125503E+00  0.3018400579657685E+00  0.6397400986197920E+00 
   -0.7068416977125503E+00 -0.3018400579657685E+00 -0.6397400986197920E+00 
    0.3018400579657685E+00  0.7068416977125503E+00  0.6397400986197920E+00 
   -0.3018400579657685E+00  0.7068416977125503E+00 -0.6397400986197920E+00 
   -0.6397400986197920E+00  0.7068416977125503E+00  0.3018400579657685E+00 
    0.6397400986197920E+00  0.7068416977125503E+00 -0.3018400579657685E+00 
   -0.3018400579657685E+00 -0.7068416977125503E+00  0.6397400986197920E+00 
    0.3018400579657685E+00 -0.7068416977125503E+00 -0.6397400986197920E+00 
    0.6397400986197920E+00 -0.7068416977125503E+00  0.3018400579657685E+00 
   -0.6397400986197920E+00 -0.7068416977125503E+00 -0.3018400579657685E+00 
    0.6397400986197920E+00  0.3018400579657685E+00  0.7068416977125503E+00 
   -0.6397400986197920E+00 -0.3018400579657685E+00  0.7068416977125503E+00 
    0.3018400579657685E+00 -0.6397400986197920E+00  0.7068416977125503E+00 
   -0.3018400579657685E+00  0.6397400986197920E+00  0.7068416977125503E+00 
    0.6397400986197920E+00 -0.3018400579657685E+00 -0.7068416977125503E+00 
   -0.6397400986197920E+00  0.3018400579657685E+00 -0.7068416977125503E+00 
    0.3018400579657685E+00  0.6397400986197920E+00 -0.7068416977125503E+00 
   -0.3018400579657685E+00 -0.6397400986197920E+00 -0.7068416977125503E+00
