  0.1076454245497764E-01  0.9394323204181230      0.3425653805911451    
 -0.5905040793910528      0.1155582967414416     -0.7987184812415087    
 -0.9165046369755042     -0.3771240803045142      0.1334041920513513    
 -0.9024219805715079     -0.1949038593776407      0.3842486884572257    
 -0.1936242091250400E-01 -0.9993777567256875     -0.2948213049187032E-01
  0.9301648917173952     -0.3405142865219433     -0.1372708814381923    
 -0.5670542398156062     -0.7190095217942769     -0.4018392672155253    
 -0.2467800245720526      0.2179874550466957      0.9442357168178304    
  0.6631570331042410     -0.2045492740794932E-01 -0.7482007386985903    
  0.7146451958591790     -0.6984603629534045      0.3788621673371558E-01
 -0.1663816071225939     -0.8371838188810540      0.5209994378260282    
 -0.9873146151176494      0.1511699455515432     -0.4855407642033128E-01
 -0.1207057183905840     -0.5701685744391928     -0.8126117930905209    
  0.3367622393173382     -0.7331858594615764     -0.5907873472371944    
 -0.1409827576091667      0.3945571539959479E-01  0.9892255094664821    
  0.5320189952062547      0.8361649845248252      0.1333563174143836    
 -0.1107350228006772     -0.1378053098985561      0.9842496895041910    
  0.5663115892730723     -0.8103422308449945      0.1504548196774193    
 -0.5556580879414585     -0.4939369925762848      0.6687827275505382    
 -0.7449005918749821      0.4598547611267794     -0.4833804990825901    
 -0.5372470097312904      0.1359507889488731     -0.8323959595763100    
  0.1780006520389430      0.9825151562362215      0.5458695485025921E-01
 -0.3953254024514503     -0.8607014809980517     -0.3207971115586289    
 -0.2160188244325817      0.9753917465646647      0.4412264978781682E-01
  0.8649361588950490     -0.3103282597865095E-01  0.5009215554831487    
  0.2976181924988653     -0.4081252884619969     -0.8630510763631085    
 -0.9393435313542549      0.1536115904991127      0.3066548701182663    
  0.8910681009508693E-02  0.5819125581516522      0.8132025420701454    
 -0.2280569115449875     -0.7777578471827497      0.5857326832627803    
  0.3049852577698520      0.8526334698456012     -0.4242642556734038    
  0.2249513548970705     -0.6274680386028235      0.7454399697238523    
  0.7823247951747801E-01  0.4033907725185681     -0.9116773353524921    
  0.6819126578430726      0.6624753280196667     -0.3100347832721866    
 -0.3656209764488176     -0.7172541948363802     -0.5931843908686650    
  0.8101232059112953     -0.2935486742791202     -0.5074737107210343    
 -0.3682996217457042     -0.4909081370725926     -0.7895344131688548    
  0.8949601104351431     -0.4434253694908153      0.4919697573886547E-01
 -0.4145894181032400     -0.9099230929816325     -0.1247314136680817E-01
 -0.4719319304345561     -0.8285437342570490      0.3013229720079403    
  0.3753240167208158     -0.8194145547088124     -0.4332339668169053    
 -0.6625429887208906     -0.3834803930351022     -0.6434124464559522    
  0.1550490315511779     -0.9861419733630382E-01  0.9829725519559325    
  0.3944317649565782      0.8256053066721394      0.4034841513467923    
 -0.7162661875545608      0.6836054784256009      0.1401652540131116    
 -0.2135669314937505      0.2081416795135209     -0.9544978821462280    
 -0.3363611457182251      0.1570228273557043     -0.9285499509128970    
 -0.3127178555129744     -0.7427999706426240     -0.5919930290608862    
 -0.7504999040004205     -0.5966624364920685     -0.2841545899237033    
 -0.8444584039317202      0.5757701986542954E-01 -0.5325175028226843    
  0.7722802950095823      0.6030694913919818     -0.1997256480578519    
  0.4961995435236503     -0.8542794194066257     -0.1548957281050698    
 -0.1317992503834097      0.7509395028172834      0.6470848636051554    
  0.5693972294007709      0.8220505122453839     -0.4444149843088345E-02
 -0.9463554796785691     -0.5345204709276369E-01 -0.3186756732854554    
 -0.1189182299683305      0.9812943614507061     -0.1513929680211403    
  0.1140848238707200      0.9384720218755401     -0.3259676626894492    
 -0.2303317827874774     -0.7018092902724757     -0.6741001334558436    
  0.1964583865788683      0.2179306268223996      0.9559865816190225    
  0.3488446746187559     -0.8920432363397020     -0.2873434486650516    
 -0.9233853247955137     -0.3279299385463884     -0.1995532444167356    
  0.1485057669157753      0.9072765526954183     -0.3934403310819512    
 -0.8117786905183229     -0.2656818596298958      0.5200274099352430    
  0.8430349487656151     -0.5216751854497731      0.1309468443518272    
  0.3819569438738591     -0.7891990169213654      0.4809093518709031    
  0.3422853816582104      0.5041019454989182E-01  0.9382427882955111    
  0.6642127711942059      0.1827095166391511     -0.7248714555781607    
 -0.2671899344902984      0.3355628792181359     -0.9033311092826953    
 -0.2715022815848683      0.9621716091968142     -0.2263416775195965E-01
 -0.9079566729138981     -0.3885148305044893     -0.1570697507134728    
 -0.1249630609024571      0.3440793291461078     -0.9305877973970286    
  0.3786862389099814     -0.9002189730708116      0.2149477447742731    
 -0.8659993623369583      0.4302678904326971     -0.2547835294805731    
  0.1746387359232094      0.3508256653155718     -0.9200123175648410    
 -0.6167422973421214      0.6192173493886867     -0.4860028939062107    
  0.6627543073027800     -0.5883790292212302     -0.4632136074472500    
 -0.4032521917810031     -0.1410468060386810      0.9041534539723353    
 -0.6951489967058712     -0.7151048101586089      0.7343693121883960E-01
 -0.7888628324927411      0.2698479819211551     -0.5521571317701235    
 -0.6290353151220847      0.2861730042393596      0.7227859876712326    
 -0.8120435332147098      0.5681997481541300     -0.1331703659293376    
 -0.9364529277378915     -0.2328292766909711     -0.2623860553586843    
 -0.8006075537086883     -0.5124170937228257     -0.3105740926175951    
 -0.9908624218071699     -0.3736339908169785E-02 -0.1348247040216325    
 -0.6938150997729849     -0.6990553814742375      0.1730380910635321    
  0.8092677860460318      0.5744498226986970     -0.1228537816658066    
 -0.5170619161210980     -0.6528524377010005     -0.5535618027691578    
 -0.4109987371069539     -0.9091372347066290     -0.6745017840208403E-01
  0.8553431953022850      0.5126506536807798      0.7468149389739261E-01
 -0.3277931064398650      0.8560706449895303     -0.3996182305122138    
  0.4918181113134865      0.2288867132464634      0.8400748882589375    
  0.6569500789333846     -0.1765407059915350     -0.7329733780414062    
  0.3532790013736762     -0.7699650050543649      0.5313641295571708    
 -0.3911424343392516      0.3993693860663873      0.8291632466119812    
  0.6623152191544236     -0.4795579599208443      0.5756411326104014    
 -0.9555450022454959      0.3897143831869863E-01  0.2922584056601749    
  0.3378322422298021      0.9386345379531770     -0.6953114605276058E-01
  0.8846189892079522     -0.4114953233716853      0.2193646342871456    
 -0.9423744355241354      0.1672348978882854     -0.2897635453242211    
 -0.8844062475705615     -0.2501669564051028      0.3940077196974269    
  0.4689959652535621      0.4660319989489869      0.7502379359453180    
 -0.5213200825707852      0.8274971868976220     -0.2085036622817735    
  0.7140230679431944      0.6941376230620666      0.9134560030309369E-01
  0.5830465135401415      0.1764018008473958     -0.7930568502361488    
 -0.6230863859312512     -0.1786648333988443      0.7614737244145033    
  0.4798328457693859     -0.8751100734476647     -0.6279171498912749E-01
  0.6259650451653291      0.3685234240231674      0.6872832372300435    
  0.7268746231449931      0.5548180337318992     -0.4047594738529213    
 -0.3684435648945047     -0.3828386676413389      0.8471622595739456    
 -0.3904431190081304E-02 -0.9697435532931051      0.2440946461181491    
  0.1591589406772939      0.9864560737205850     -0.3965912533389290E-01
  0.7920405402014942E-01  0.6992201428452778      0.7105053903146707    
 -0.1221906383228974      0.3479476448257204     -0.9295170167170029    
  0.6641653654372384     -0.5132666701257597E-01 -0.7458216546916560    
 -0.2612888370616562      0.8850821536966184      0.3851723313462725    
 -0.5608074504018136      0.7966170195261331      0.2256021448814663    
  0.9919053110022066     -0.1068543305684751      0.6860033559960814E-01
 -0.2140733310983642      0.3892391896957065      0.8959159905468146    
 -0.3219338185596295      0.7769239253034055      0.5410617624252927    
 -0.2206382798701583     -0.9713377004398884      0.8844106037405412E-01
  0.7148887790343208      0.4089038190377233      0.5672139811280950    
 -0.8141085302455894     -0.4700138840934420E-01  0.5788075418210792    
 -0.7885880054258545     -0.3241815730644036      0.5225277651799580    
 -0.1393717727658749     -0.7867563462323567      0.6013235074560193    
  0.2522634106932966      0.8413945368806420     -0.4779313809876842    
 -0.7915600023293741      0.5902121304482990      0.1583742522760612    
 -0.8698822322398704     -0.3327255614125741      0.3641409106596888    
  0.3295260197404377      0.8405317451189886      0.4300220782253537    
  0.6532742988300713     -0.6679514871063964     -0.3564737036029900    
  0.9162923344663586     -0.3589741810938401     -0.1776116412462817    
  0.1622386928433556      0.8025650730826595     -0.5740800554036908    
 -0.6093981829985550     -0.5299431535913597     -0.5897407129575710    
  0.6456188911096453      0.2175711799613622     -0.7320102657016310    
  0.9828920039253137     -0.1701026521575941     -0.7062858025356016E-01
  0.8312674448073571      0.5103912406261372      0.2202162952543703    
 -0.2715459937982512      0.4437299685437421      0.8540295593644811    
  0.8864827258634113      0.1596503524315299E-01  0.4624862099516708    
 -0.8253226729979675E-01 -0.7440298626175729     -0.6630294023553032    
 -0.8305540644151970      0.2817915390378125      0.4803888785245740    
  0.9730695805538109     -0.2076270707067979      0.1001328662854753    
  0.8719559887580326     -0.3387432830027072      0.3534766497090714    
 -0.1637515256532396      0.7310015937203750      0.6624364934274896    
  0.1577417789961996     -0.8217399619651266     -0.5475956227625151    
  0.7823143183673207     -0.6120639918469675      0.1155940187113066    
  0.6439994513696954     -0.8464174362271574E-02 -0.7649791267661468    
 -0.6642910461886191     -0.2863876045507490      0.6904343168711371    
  0.7704261173169795     -0.4976551463096567     -0.3984757873540096    
  0.2272769522214826     -0.6142491375913726      0.7556739931724321    
 -0.3983582240017415     -0.7026126495484403     -0.5896152898837502    
  0.8940924968781917     -0.4092368963793424      0.1819993672184716    
  0.2596033248897106     -0.7641406235637327      0.5905042092363417    
 -0.3820487777048448     -0.8144511409616602     -0.4367013515441463    
 -0.1191409400260270     -0.3297156055639735E-01  0.9923297398567628    
  0.9220392985998315     -0.3103105534495111E-01  0.3858504962310005    
 -0.2003902734060546      0.3136519997512250E-02 -0.9797111311843669    
  0.1010839209809363      0.9572777637366418      0.2709267871113786    
  0.9433909532649085     -0.2137366745757806E-01 -0.3309934676656630    
 -0.2654717026958903      0.9459562850099471     -0.1862564949684298    
  0.9392534880075395     -0.2650533753086682      0.2180586927942872    
 -0.8411304321802986      0.3170449746751972     -0.4381575973247386    
  0.6761293208760747     -0.6205683878897249     -0.3971700107052471    
  0.7822694698663447      0.5221728374259039      0.3396910425218902    
  0.9693430101650651      0.1859753316109322     -0.1605842603630085    
 -0.2595924715739809     -0.2967158120684607     -0.9190056994222973    
  0.6932271998887350     -0.6848700661949774      0.2244750359494594    
 -0.2219645520939025      0.9252525667152709     -0.3076352148252154    
 -0.6677036592304465     -0.7374885959304525      0.1014021416085558    
  0.1503787446388050     -0.6028332328050453     -0.7835676911324734    
  0.6121179326232731     -0.4389142893313280     -0.6577734284552588    
 -0.9294737564953087E-01 -0.1559620513295271     -0.9833802031284496    
 -0.3222141238734361      0.9103002088752187      0.2598684053481825    
  0.8488768936069587      0.4412357559907292E-01  0.5267457921773584    
 -0.3843380289385869     -0.4087640640480125      0.8277657998821613    
 -0.6505186204497251      0.6023124594166438      0.4626502195824187    
  0.5982932703866513     -0.8012753111775920     -0.1743074094364020E-02
  0.5285061623749009     -0.4399178744576428      0.7260533727381373    
 -0.1649767097732480     -0.6711093930364129     -0.7227688896256471    
  0.3310390611567735E-01 -0.9975067801568700     -0.6232459338782992E-01
 -0.2039216610269049     -0.4548440736230646E-01  0.9779300204262715    
  0.8022847098506968      0.5944961342249874      0.5397768734698439E-01
 -0.2146452268799861     -0.6917506805174087      0.6894986748220342    
  0.8414869920225478      0.5269447279676855     -0.1192849358632775    
 -0.8275170513832231     -0.5589140638785841      0.5320337271961331E-01
  0.6311943694647826     -0.7751304873416104     -0.2768384997635127E-01
  0.8697182701518357     -0.2879386280433133     -0.4008509411796772    
  0.7813393772907746      0.2111023968336735      0.5873198068735148    
 -0.2857887213231995      0.6403943338159800      0.7128954369196354    
  0.9533645383726476     -0.2909218179062588      0.8037756428025340E-01
  0.3673358923500990     -0.7841412584310133      0.5001867941255378    
 -0.5959785856026950     -0.2577518405303699     -0.7605087206641472    
  0.9402186687781736     -0.2486704213113989     -0.2327055574020750    
 -0.4119280963221191     -0.8735157883201352     -0.2593943156969477    
  0.7299056964848414     -0.6768630712674658      0.9536276523545352E-01
 -0.4802490842777731     -0.9883987988517418E-01  0.8715454636418256    
 -0.4186377444617601     -0.9008362950839146     -0.1150495909225951    
  0.9800353508408596     -0.1031272500079621      0.1699867095040923    
  0.5483621238307766     -0.8288005817788494      0.1113039837150524    
  0.2729204585822959      0.8021044201895603      0.5311712740723078    
  0.7686743046483866     -0.6355811397955373     -0.7194739821234052E-01
  0.5727206740202380      0.2227570564598758      0.7889045083830717    
 -0.5584612000306601     -0.6376431975511265     -0.5305961182265566    
 -0.7771315955925727     -0.1644180160609246     -0.6074810277912649    
 -0.7995470313067159      0.1472985241329152     -0.5822608431939096    
 -0.3992391572201152     -0.6385515511051851     -0.6579209769594935    
  0.6633086688843666     -0.7164518397172221      0.2161443294390525    
 -0.7028394710722935     -0.1044885127843306     -0.7036325948951893    
  0.1500372023143464     -0.8838197025612716     -0.4431157538230719    
 -0.3334853150329923      0.3146659734464828     -0.8886916618334636    
 -0.8722012100637029     -0.1691447213740755     -0.4589717991278970    
  0.3558604152310525     -0.5361629986966319      0.7654362179177430    
  0.9561463500560571      0.9729776859474296E-01  0.2762558623829798    
  0.3468359556275808      0.8136107745587550     -0.4666286825794206    
 -0.5804989170770876     -0.4060578961079664      0.7057889148185175    
 -0.5044049838113243     -0.6895065599364948     -0.5197656357540757    
  0.5653543135634896      0.5372550707983520      0.6258845652647245    
 -0.4211732825826744      0.7916262313053214      0.4426522065322485    
  0.3900471675333139      0.8765152801771271      0.2821066654924186    
  0.8821587390683762E-01  0.7961403086895528      0.5986472821875637    
 -0.6330038877947257     -0.7643241693386569      0.1229416211115440    
  0.6748280515144163E-01 -0.3131303150506926     -0.9473095992362510    
 -0.1743043596990629      0.3415354569621696     -0.9235645737183414    
  0.3704644151802715      0.4948250329405102E-01 -0.9275276809631579    
  0.5990625745948814     -0.4898507609179666     -0.6333800310617955    
 -0.3320542850063881     -0.9430554142294754      0.1965801366794683E-01
  0.2907968404787385      0.9013651176987071      0.3209020444989080    
 -0.3262563389108910     -0.4657764260355268E-01  0.9441331074218071    
 -0.6825722780157553      0.3580371475597291      0.6371063382604785    
 -0.2036314198116045     -0.8766143610393355     -0.4359833791385948    
 -0.8872878152026236     -0.1758574028178058      0.4263736704665650    
 -0.2612072815793866      0.6035127748657095      0.7533545557198140    
  0.9639240039911020     -0.4905568285879031E-01 -0.2616181463679840    
 -0.1694306394777827      0.1579989317590617      0.9727947347560764    
 -0.3230045775487971E-01  0.2931308056127062      0.9555265622836819    
 -0.7350756557065589     -0.5722112816630816     -0.3636454723010671    
 -0.6864523484634344      0.2741381136629638      0.6735216907615875    
  0.6324098838641097     -0.3883298358422534     -0.6702668702731113    
 -0.3678064369559721     -0.5836928396655273E-01  0.9280686675149552    
  0.6904859077368106      0.7228832006119192     -0.2586676419539773E-01
  0.5004619504923308      0.5804024284318757     -0.6423946272967991    
  0.8472476067622566      0.4406855742229330     -0.2965935223625635    
  0.1704072142722747      0.3275611321415879      0.9293358305984356    
 -0.8428407639005435E-01  0.9797386844760091      0.1816818774900091    
 -0.8448588870738988      0.3557118778791852     -0.3996029540280161    
 -0.8404781698083102E-01  0.9940870328670068      0.6875271301139418E-01
  0.8968392493168107     -0.3602236950218803     -0.2567454973892292    
 -0.9545109970559191      0.5221002351462573E-01 -0.2935691910673146    
  0.6548185702143491     -0.6775183179507243     -0.3349351712550607    
 -0.9893365332032861      0.9455065538431309E-01  0.1107853674259380    
  0.3999417899828104     -0.8771647158980124      0.2657604669790165    
  0.6979504668029239      0.7086818787947954      0.1031268178383275    
  0.2459116203230819     -0.8656503532141125     -0.4360928123351251    
 -0.6208475132916152     -0.7406305731266523      0.2569332975495863    
 -0.5727581419666036     -0.2534810495215704     -0.7795482463224500    
  0.1377483269467933      0.1115964754940146     -0.9841603655302692    
  0.9468988222167868      0.8938450774512774E-01 -0.3088576213397091    
 -0.6134492068601999     -0.5971381431477506      0.5168230921704720    
 -0.3795365598303000     -0.8652419065858874     -0.3275796740333555    
 -0.9728633739703046     -0.2305043153118549      0.2011507419146657E-01
  0.4523457901935374     -0.6542386798696778      0.6060982064455938    
  0.9566425900476465      0.2191278026568850     -0.1918800693394075    
 -0.1416784064408881      0.9249344851836664     -0.3527370511675750    
 -0.7053232018387409     -0.6162094275120948     -0.3504356180429767    
  0.8011825890446418     -0.3881369905554811     -0.4554735289501016    
  0.8597783498387079      0.1256435406244445     -0.4949695847706017    
  0.6016608648526277      0.3883801146813790     -0.6979721271117257    
  0.9168916291834379      0.4630627848691340E-01 -0.3964410030585045    
  0.1268954438757408E-02  0.2925859388001617      0.9562383898228832    
  0.5498906129977151      0.4521723159059960     -0.7022538789249976    
 -0.6667166091070731     -0.2720527977187008      0.6938848884319313    
  0.7485462709386330      0.3000516543952904E-01  0.6624033290305937    
 -0.3388985957935722     -0.6616376943244442     -0.6688671790558857    
  0.3041299995409367      0.1052222969128701     -0.9468015692908465    
 -0.1869807803602806E-01 -0.2732173507094626      0.9617705865480921    
  0.4238398973030240     -0.9040838109134319     -0.5470104476523319E-01
 -0.5121713370168574      0.3733851513462510      0.7734753068408209    
  0.6804892625272217      0.7285578039395223     -0.7834468650762816E-01
  0.4664629148746207     -0.3430074945672876     -0.8153270556760303    
 -0.1147173738403185      0.3377190582295392      0.9342300369008341    
 -0.6506797899028357      0.6859641989058176      0.3256822513301909    
  0.3386586538875304      0.9880531135073468E-02 -0.9408574234450057    
  0.2405365563632850      0.1416775284449856     -0.9602445745676528    
  0.7144401353263035     -0.3740614347079358E-01  0.6986959807137691    
 -0.3690662415467992     -0.3820420924320679     -0.8472508182118486    
 -0.9864323647068701      0.2381343829491991E-01  0.1624318626852081    
 -0.4766778775788501      0.8590899921218609E-01  0.8748701874457052    
 -0.5473890284233319      0.8339993066021736      0.6935710597231123E-01
  0.8568315668047825      0.4732604038600967     -0.2046075664901958    
  0.2825727638372592      0.6335470639637262      0.7202574198717531    
  0.9666546247227406      0.2515409813345160      0.4802052906212569E-01
  0.3812302523904937      0.9523282075690682E-01  0.9195619633896148    
  0.6613677237621566      0.4391928325899645      0.6080315697126812    
  0.3616944389520998      0.1409959924500027     -0.9215732542474117    
 -0.5801337571641829      0.6693639229936316     -0.4641085674636319    
  0.4515577033283603      0.2691843201587560      0.8506676450562141    
  0.1146132207297942E-01 -0.4728066259578631      0.8810916709098326    
 -0.3424924731257509     -0.4210879529028773     -0.8398713245326757    
 -0.8681201701310740      0.1370436828941053      0.4770601630721382    
  0.1763953738682072     -0.9105787128662229      0.3738062061453611    
 -0.4696207421393521      0.3250313015237772     -0.8208599220221703    
 -0.1897527212013348      0.4651379109671528     -0.8646621470712139    
 -0.6969180164438338      0.1190396150672520      0.7072021269768869    
  0.3293500884064127      0.1197714536845222      0.9365806522392957    
 -0.1934309078178786      0.6803039534079262E-01  0.9787524453152221    
  0.6839323884908450      0.1967619840394558E-01  0.7292800115110631    
 -0.4864048888957557     -0.9910727643930030E-01  0.8680944832304209    
  0.5186188487044003     -0.5360376460052823     -0.6661066970340697    
  0.5405813364512170E-01  0.4331234695883148      0.8997120529806113    
  0.3322207620728401     -0.9166248456479604      0.2223246670718165    
  0.4113841083480449      0.8634833013971142     -0.2918213556390702    
 -0.9917898764666098     -0.9362477343484575E-01 -0.8710478022256170E-01
 -0.8471144573810423     -0.2501594494743096     -0.4688468256634917    
 -0.8657534685761681     -0.4647173312358289      0.1857652650453868    
  0.8749908702583346     -0.3211288093690513E-01 -0.4830732241001303    
 -0.3817315778756863      0.5473281655171156      0.7447904951623696    
  0.1415666688148580E-01  0.7999954636875094      0.5998390174556949    
 -0.3043029572776498      0.9389680021384103     -0.1604331672450533    
 -0.4930092836905032E-01  0.5197628090598592     -0.8528868862751697    
 -0.6118416126843776      0.6620808915777666      0.4327802375286673    
 -0.7079552537854332     -0.3374084435098987     -0.6204473393333476    
 -0.1644971626794125      0.7294907582126878     -0.6639155949009639    
  0.1957015525565463E-02  0.2008416199337996     -0.9796217707832957    
 -0.8541962602963459     -0.3627861075811177      0.3724714607079030    
  0.7746225460349714      0.6255336271039084E-01  0.6293226422018525    
  0.1591858683276857      0.9838705815635094      0.8159986555529578E-01
 -0.8814817035985147      0.3088361845862951      0.3572257231936694    
 -0.4799979798612854      0.1010826541011451     -0.8714265524810185    
  0.9176898300214348      0.3908713819080933E-01 -0.3953701702244148    
 -0.5356137213149202E-01 -0.6837997164267869      0.7277012623529229    
  0.2801843576775444     -0.6637602864682338     -0.6934832426385154    
 -0.6262357696757258      0.6900086000350810      0.3629282197022973    
 -0.3709536667316944     -0.5474263675665719     -0.7501451521080300    
 -0.6424515892682572     -0.4446500417648863     -0.6241332356197477    
 -0.2850018984997246      0.4135189717850673      0.8647404106582353    
  0.2256089336217180     -0.4780715719964116      0.8488510947857411    
  0.8924578565147838      0.2248693833261652      0.3910917217067472    
  0.8158762012302860     -0.2756279133596655     -0.5083062833007621    
 -0.4868798099327694     -0.8711443008335475      0.6368404670763368E-01
  0.2340207083404931      0.1014290635869039      0.9669262914657444    
 -0.6826517286350110E-01  0.2079230149931577      0.9757601580358113    
 -0.8108715895723720      0.4573755493212290     -0.3650957026691476    
  0.9216414621587739E-01  0.8673057648796002      0.4891691735574820    
  0.5577445445406556      0.8203966120396344      0.1259778630912042    
  0.8424222775168568     -0.4708495451303293      0.2619645246858318    
  0.7322404193604808      0.5789822987066370      0.3586132541320329    
  0.9017996462580630      0.3326177678552699      0.2759036399104051    
 -0.1276220485459606      0.7918154839840861     -0.5972778683728203    
  0.4388347120278377      0.6822291770100575     -0.5847969267665696    
 -0.7955569961001401     -0.3372068009134456      0.5033692872770861    
  0.5722979080879411     -0.2372931312788611      0.7849631037482205    
 -0.6956146638462674      0.6858936503045177      0.2137057320569305    
 -0.8504845703316575      0.5151273565737226     -0.1063945587760247    
 -0.3145904704292624E-01  0.8468997507091778      0.5308211945729782    
 -0.3484597561588241     -0.3593703028522081     -0.8656955491196920    
 -0.9720220515841093     -0.1124458070668430      0.2062257784742377    
  0.3029469075441687     -0.9422610060819686      0.1427142866948543    
 -0.8041759315519957      0.5053191384952501     -0.3129754613111039    
  0.7368000369125214     -0.2011360517106985      0.6454998019426019    
  0.6747136334500808     -0.2559546060693875     -0.6922779445197244    
  0.5522025489664864     -0.3623920409784587     -0.7508291107504972    
  0.4582139588364757     -0.8887611865094849     -0.1198003679699056E-01
  0.4496382819851117E-02 -0.9904953688402649      0.1374725676181428    
 -0.9745113162965048      0.6591667012204661E-01 -0.2144357409810100    
  0.4090259678394601      0.6044709268457911      0.6836027034990304    
  0.9261418362624512     -0.3670198470397857     -0.8693521152736351E-01
  0.6104581903590095     -0.6218498387288169      0.4905543557003114    
  0.7636609242281375      0.6127748347662083     -0.2032953385699562    
 -0.7416466033064778     -0.2336272357162146      0.6287914046292016    
  0.5790651877562261     -0.5340909111879704      0.6159792260419585    
 -0.5024151425942402     -0.4774067758843563     -0.7208757138589933    
 -0.3667056865274184     -0.5276826764850217     -0.7662101098302336    
  0.3543763015641445      0.8235780013497046      0.4428732466321989    
 -0.7304557344491138     -0.2400510054523609      0.6393824636254237    
  0.1970903955823916      0.7398383262695732      0.6432687050928352    
  0.2397330531998529      0.9128543119041810     -0.3304921609379273    
  0.8299886962805549     -0.3786554292394630E-01  0.5564934543241091    
 -0.1133825376609645     -0.4214847973682656     -0.8997193816635229    
 -0.4810439273760122      0.7975435089835214     -0.3640344643202255    
 -0.9864969485196572      0.1538918853015901      0.5604514430106552E-01
 -0.2529048329548638      0.9615081204344067      0.1074303486300162    
  0.7836561544719760      0.3740771806708850      0.4959327519528395    
 -0.5720136141836605     -0.7255667173001104     -0.3825615818856984    
  0.6369963318689467      0.7653823874769173     -0.9179038144403112E-01
  0.5273491778880518     -0.1232215915263457     -0.8406659764511172    
 -0.2042490655356798      0.2800549094963080E-01  0.9785182735669640    
 -0.9023577971920385E-01 -0.6763113298498781E-01 -0.9936214238378892    
 -0.4436188720309556     -0.1074347121159695      0.8897528190517530    
  0.5006530121247404     -0.8229523828563860E-01 -0.8617273670981643    
  0.7549070686724247     -0.2882162882179771     -0.5891066871749624    
  0.9541095870615903      0.2640859583212894     -0.1411860563040412    
 -0.1506053658521579E-01  0.9176920565321087     -0.3970068886249133    
  0.6915960880882756      0.6615300523631173      0.2899531699455026    
 -0.3394297213876780E-01 -0.9941978385992837     -0.1020712122339079    
 -0.3705673020776833     -0.1131850942549038      0.9218834031857692    
 -0.4275127178033961      0.8975977192265808     -0.1074765581677889    
  0.8143388625737806      0.3215140472409748      0.4831986489310267    
  0.6910730758761311      0.1971754632563709      0.6953702901970567    
 -0.5959209017435086     -0.7962664642039862     -0.1041057003688340    
 -0.7007834735124745      0.6041476490317179      0.3793522656070989    
 -0.2903232685756810      0.9108544295351921     -0.2933540657970378    
 -0.4911673322616230      0.4060319081545216     -0.7706443675778073    
  0.5722351896278626     -0.7259870554780448      0.3814310986664335    
 -0.6303219947140325     -0.5013493483018424      0.5927419454847456    
  0.5309253759521051      0.5223351540997259      0.6672962100609681    
 -0.4439906497839287     -0.1611999839127145     -0.8814118606480091    
 -0.5909398147901561      0.2489294849737929E-01 -0.8063314928804919    
 -0.4716574331174713     -0.4207425537275459      0.7749290091794609    
  0.5439466455627888E-01  0.5211070444350496      0.8517562261046157    
  0.3826762844645520     -0.9200730612875792      0.8381183210804946E-01
 -0.2491461585717345      0.9551530816893401      0.1600274420476211    
  0.3297704247959199     -0.8334187982058044     -0.4434687967908353    
  0.1185484773514370     -0.6029476606364755     -0.7889235558979446    
 -0.1590205926880396     -0.9812497554595423      0.1089099100712738    
 -0.3755170299126479      0.9266499765816109     -0.1751516905095605E-01
 -0.6689618729500805      0.6902736519269826      0.2757032788969098    
 -0.6294904403951117      0.6802277891359250      0.3755421951504514    
 -0.9448557631546294E-02 -0.4472483720860755     -0.8943598931219124    
 -0.7777840109243057     -0.3856023589290997      0.4963495271870552    
  0.4369540092355108     -0.8460123087636980      0.3055067384417740    
 -0.1450371117086719      0.9889091430541835      0.3198348028352675E-01
  0.5433154701376787     -0.7224506293075887     -0.4276369817054440    
 -0.4881848966623655E-01 -0.4718622902118007     -0.8803196772438874    
  0.1030723985995702      0.9942996324759724     -0.2728225623143072E-01
  0.9926275960004304      0.5549805844327262E-01 -0.1077516643371859    
 -0.9534676363184670     -0.2251583648958192     -0.2005072996444686    
 -0.3857619543690238      0.6845481519674659      0.6185317632905512    
  0.9919060115940829     -0.1601908856574124E-01 -0.1259597275522702    
  0.7891442600993605     -0.8182958827220367E-01  0.6087324989151102    
 -0.9560086189483613      0.1827891044756327      0.2294246363872965    
  0.6955344828587058      0.1953261871736994     -0.6914329061873304    
 -0.4869098595701352     -0.8056303288298301     -0.3374589781335371    
  0.8429773897955856E-01 -0.4934530412769594     -0.8656777617898322    
  0.3275108320505449     -0.6490288490638986      0.6866572711129992    
  0.6816983583158582      0.6480706147334979     -0.3395465013638193    
  0.7426909573562422     -0.4339752508685421     -0.5099761009055760    
  0.5322099506318313     -0.8428198647898191     -0.8004526197180407E-01
 -0.6705067782708746      0.2250033723029777      0.7069612031399601    
 -0.9921897904053505     -0.9198668144324910E-01 -0.8424885905722747E-01
  0.6296615425510929     -0.5240481950022117      0.5734978911444246    
  0.9075782331907936      0.1897886440059903     -0.3745424158151449    
 -0.5537147298878000      0.8173623371870666     -0.1591188475743103    
 -0.1871643510769699     -0.9793368337010673     -0.7660856246076454E-01
  0.2261790414505432     -0.6300710154601157     -0.7428684652652663    
  0.2849623996457435     -0.6588430005591854     -0.6962200308827007    
 -0.7836355423318875     -0.2280476969292871     -0.5778491020322318    
 -0.4149905565970496E-01 -0.2196899136008953     -0.9746867036342416    
  0.5849633663126792      0.4192341671101131      0.6943058210901216    
  0.2348456757395936      0.9307847396816740     -0.2801558083676513    
  0.8367378116360071      0.4686360308036455      0.2832844951831825    
  0.8952715881958032     -0.2950214563248678      0.3338429625996606    
 -0.7006629196199887      0.7134568731051517      0.7124836041109317E-02
 -0.8150367780462635      0.5596060581120803     -0.1501869173937089    
 -0.1501406356845928      0.4608999938158095     -0.8746593538154229    
 -0.3704615812875631      0.5377935132437817     -0.7573218298074000    
 -0.2749964988899887      0.8525953825468110     -0.4443625088349664    
  0.4248175648848297     -0.8464047336442783     -0.3211371411560517    
  0.5707317992272568E-01 -0.9934575184286567      0.9891820464951534E-01
 -0.8288643338909530     -0.2399267940548084      0.5053899974258376    
 -0.3688828672500173     -0.6990490210857403     -0.6125813385734783    
 -0.6347109107061107     -0.7598658816857502     -0.1405201113028196    
  0.6417564567311288      0.4982058456974444      0.5830433822253718    
  0.7329507555278845     -0.3288493200239323      0.5955176862956304    
  0.4306251212282897      0.5108317347619479      0.7440517076972673    
 -0.8129005934032432      0.1023704217352187     -0.5733349125933364    
 -0.6642779486560521     -0.7232402436092110     -0.1888342049349019    
 -0.1344128814620071      0.2701449179085764      0.9533912631366248    
  0.8296326529983147     -0.2883754229704729      0.4780682759874145    
  0.7222003967310689      0.1296942123291274     -0.6794159243422352    
  0.7355102147325554     -0.5480288166944716     -0.3983580551420135    
  0.4709205793332963     -0.3531037629414873     -0.8084253463103162    
  0.9018096057762255E-01 -0.6090509592777220E-01 -0.9940613480260291    
  0.5831212245349504      0.1104659955143799     -0.8048396743028248    
 -0.5766078646673396      0.5554763007789375      0.5991405925796702    
 -0.2364575523927790     -0.9666062565795668      0.9879357599385130E-01
  0.3314329705196145      0.9434646956783487     -0.5153063273952765E-02
 -0.1567791773362285      0.5555201038014020     -0.8165890666830257    
  0.4489675130951255      0.8914792486886577      0.6076941124188125E-01
 -0.4305523008700716      0.6847914303917895      0.5879501790776616    
  0.6097229351854919      0.2793223197727093     -0.7417661248571417    
  0.2238855952169917      0.5345604334036231     -0.8149358154441759    
 -0.2317001055783031      0.7527795329787605      0.6161477386173566    
  0.8330562231122002      0.5459529339654886     -0.8917804117893011E-01
  0.7704098006768734      0.1196019264787470      0.6262300840774042    
 -0.2291311217150510      0.1868008726101503      0.9553032832842610    
  0.4327834766278461E-01 -0.5323881010531175      0.8453933371399580    
 -0.3000932636408083     -0.7715549612930648     -0.5609340200250520    
  0.3087755528228723E-02  0.2324604283317769     -0.9726009536421424    
 -0.1939725039006352      0.8073407463817127     -0.5572930889238956    
  0.3475800419276497     -0.9361423996467747     -0.5315563974924572E-01
  0.3489846261514553      0.7515506478493454     -0.5598047466993811    
  0.6007052555355030     -0.1141877098256567      0.7912738861461293    
  0.6573160310014643      0.7523853503211571      0.4303394021690003E-01
 -0.5859160974213477E-01 -0.9478660269400888E-01  0.9937718667871180    
 -0.3846330123738271     -0.8057354827107932     -0.4503862538899700    
 -0.3656933550744985     -0.4848918480530304      0.7944484034511452    
 -0.7926844365482782     -0.2099772851354847E-01  0.6092704485295590    
 -0.9186737871567261      0.2325962918774732     -0.3192764285003948    
 -0.7685963597012333     -0.1092877950885507     -0.6303299244829609    
 -0.9170061910943574     -0.1609383489393132     -0.3649636876941413    
 -0.1956553977935777      0.8133468264048676     -0.5478922387581040    
  0.7010219251032512     -0.4394873951357962     -0.5616218389995925    
 -0.5876738194659070      0.2500507388880242E-01 -0.8087114616438721    
 -0.5983973827442969      0.6213219622813182      0.5058454225469158    
 -0.9464820436703082      0.1455052630231935     -0.2880971354287091    
 -0.7561788360088399     -0.6519818302947300     -0.5579660328236673E-01
 -0.4492945084995754      0.6540767720114243      0.6085376084904204    
  0.8591944879567501     -0.5948207105123532E-01  0.5081798058642176    
  0.4929328852409998      0.3870307303374232     -0.7792460358721527    
  0.9965950425949029      0.8158022524262294E-01 -0.1195775583570635E-01
  0.5996316184800112     -0.7991500097721342     -0.4244035815400225E-01
 -0.5894278186452354      0.3604948077012516     -0.7229234677526779    
 -0.4850293169567688     -0.6739578207221596     -0.5572498699684799    
 -0.8726110297806646      0.4297773697441759      0.2320375037809747    
  0.1610912529577794     -0.9323243203825304     -0.3237606675366009    
  0.3990249470643099      0.3869888276655503      0.8312753688654366    
 -0.5051799636850866     -0.2175803186983998      0.8351359225935844    
 -0.9261340190676823      0.2421909320696128     -0.2891700730518183    
 -0.8921457434157407      0.2472755248852050     -0.3780618828947474    
 -0.7381425814107222     -0.4542189310143840     -0.4988293217288511    
  0.3354137693508236     -0.3925571139587178     -0.8563857282850262    
  0.1721316059400807E-01  0.9861797673366601      0.1647822004895424    
 -0.3539320427284374      0.3468408056843144     -0.8685813517698451    
 -0.8153540487354622     -0.4332776852389987      0.3840159146241528    
 -0.4817588911463421     -0.2512469536602542E-01 -0.8759435601020258    
 -0.4401915143095818     -0.4905118316689469      0.7520834885320991    
 -0.4415914877424827      0.5380036646117642      0.7180174195781694    
 -0.1485901023934944     -0.7915959534178387     -0.5927029846417122    
  0.3736097801700000     -0.4011409759050276      0.8363621521872486    
  0.8173101498115613E-01  0.6212350962022252     -0.7793503682149397    
 -0.6581383236914210     -0.3156522185603967      0.6835331914446774    
  0.7948701182963215      0.3735028915394968      0.4782019291588303    
  0.9072978744319769E-01  0.2399398791056118     -0.9665386490385661    
  0.2311613978147130     -0.8650755542906219      0.4452063493809600    
  0.1508517920237776      0.8952193512610103      0.4193161694605050    
  0.7549098988258840      0.2630668926685252     -0.6007552368780651    
  0.4654729139935756      0.8708403988817554E-01  0.8807674700708945    
 -0.6664607485884774      0.5963610437196092      0.4474187927708722    
  0.3690166500188359     -0.1525802491872725      0.9168129468800197    
  0.3977862152773843      0.7592607323825659     -0.5150623915577455    
  0.5503281650053821     -0.4529322838997754      0.7014208843505747    
  0.7963407196762462E-01  0.1458427518936719      0.9860975135867325    
  0.1661111554941700     -0.6756055860554879      0.7183064639212238    
 -0.4665915584171785     -0.5138133411182054     -0.7199223347714497    
  0.6297758347682285     -0.9414557069402217E-01 -0.7710505881332805    
  0.4662717643294559     -0.1540166511738152     -0.8711311686251960    
 -0.4382086040326715      0.8681879115657645      0.2328582606711934    
 -0.4472225385335802      0.3644234974762436     -0.8168154721323309    
  0.1015386736682655     -0.9869347653928328      0.1250986275251789    
  0.8402075735201098      0.5417558433754869     -0.2349126578037737E-01
 -0.4974848300406166      0.7839812277167883E-01  0.8639227848745139    
 -0.9296825941349089     -0.3106181743994714     -0.1980066258874329    
 -0.3199461816439442     -0.1243150872987787     -0.9392444835724920    
 -0.6653183339349726     -0.3975761896872620      0.6318897751378403    
 -0.8659681183472249      0.2960537599252673     -0.4030525886783000    
 -0.3172506601173658      0.8860263357183926     -0.3380966593572523    
  0.9758099604754140      0.2168020378560116     -0.2813889511781892E-01
 -0.7237446443206084      0.3235791459204244      0.6094999804287484    
 -0.5985217627097940      0.2499849582119199      0.7611039483740349    
 -0.9743195400809178E-01  0.7605707590941259     -0.6419027455535226    
  0.9446577939747365      0.3047983595755056      0.1213244092623787    
 -0.2941635642232621      0.6134684392078110      0.7328876254784216    
  0.7809585559115505      0.3431494484267598      0.5218737299318256    
 -0.9365274813611056     -0.3075805368753735     -0.1682572137855637    
 -0.8206530619009733      0.4534513046048417     -0.3477218232218456    
 -0.6214366290933393     -0.5182120861161451     -0.5875991404216486    
 -0.8463428027953368      0.1741686951199204      0.5033578506358651    
  0.7747679681968777      0.5938812381487435      0.2168863076152966    
  0.9717562368026073     -0.3393439699995704E-01 -0.2335343078339547    
 -0.2671357485720589     -0.9290360646315584      0.2559892233058896    
 -0.9219523253537083      0.2291175589768972E-01 -0.3866250912920355    
  0.6739565356247872E-01  0.3783159045797260     -0.9232198558430760    
 -0.6544360009312847E-01  0.7485224118825048     -0.6598722104441500    
 -0.8012972725172370E-01  0.3070307748071647     -0.9483202677006732    
 -0.3206510660549544     -0.9135341832702012      0.2502762270665507    
 -0.6860750296522795     -0.5926687612633581     -0.4219535437819908    
  0.2080625364416286      0.9179951080439726     -0.3376314004011048    
 -0.1517208435086097      0.9821307343589407      0.1113553154214188    
  0.7029597676195736     -0.5358128754404208      0.4677094478632041    
 -0.5661825922218267      0.3026813021157624      0.7666950512521125    
  0.8806198810802499      0.9525538004243425E-01 -0.4641498008393172    
 -0.7160079528472003      0.4202872308699034     -0.5573968559538794    
  0.9387555186037858      0.1017780799486805      0.3292101133514845    
  0.1530691042275125     -0.6291080603786084      0.7620976956385921    
 -0.3210346743062845      0.8742768355456545      0.3641109071716124    
 -0.4501398615250475     -0.3698945892745265     -0.8127435621963673    
  0.3804670954519087E-01  0.9940797465409068     -0.1017737953009043    
 -0.5866923412092490      0.7946607366316857     -0.1559051327647579    
  0.5798729333679643      0.1911379052839032E-01  0.8144826849963536    
 -0.1677887043679855     -0.6707964615911949     -0.7224119723559718    
 -0.4570614091909054     -0.8585624129793848      0.2323046517989685    
 -0.5311615219199097     -0.7577043046472807      0.3791459143268012    
 -0.4335062269230687      0.6919021333698490      0.5773593240410833    
  0.1043239018737682      0.5253034365918263      0.8444956027136254    
 -0.1466987173979164      0.9371596708246108     -0.3165615859413667    
 -0.4080405975601710E-01  0.5953465973010645     -0.8024322138283528    
 -0.4104129325490428      0.6900389793668116      0.5961605754751851    
  0.3399351355183940E-01  0.2201897351555592     -0.9748645657569700    
  0.2382671321943000      0.1866145468056235     -0.9531021900281395    
 -0.6852352263306390      0.5727149346098259     -0.4499447613546140    
 -0.7216081488447884     -0.4873643030735834     -0.4916886368530374    
 -0.1881745740162930      0.9750268580672941     -0.1179531930098014    
  0.7663676098803314     -0.4610283688554418      0.4473628612623079    
 -0.3138229588685918      0.8826197351912022     -0.3499965050367996    
 -0.3310396983631111      0.9382719376698446      0.1002920190689943    
 -0.3355410499854666     -0.1815411702749473     -0.9243673551515399    
 -0.3289917008339323      0.4807923696097868     -0.8127749738441770    
  0.1777537576414854      0.4299344692069152      0.8851892192249633    
  0.2241233637211789      0.4599314380289078     -0.8592041609227489    
 -0.1525184755026990      0.6940255414256341      0.7036097373396619    
 -0.7955423819652440      0.5642520829157675     -0.2207530417056214    
  0.7817000044787380     -0.4684671200927314     -0.4116839326351750    
  0.4709761934194656     -0.6191571435322076      0.6283516983705442    
  0.3479016711106394      0.8046953204066847      0.4810715836068553    
 -0.2802125156317700     -0.7397619620643460     -0.6117460139355417    
 -0.8354044429164799      0.3826207754247707      0.3945893548599013    
 -0.2611000530443993      0.9214752337609801      0.2875937340509334    
 -0.4584868166656130      0.8194545968708865     -0.3439244140956053    
 -0.2221530695700357     -0.8376121960496657     -0.4990529257598508    
 -0.3291517872470677      0.7751383517590867      0.5392769572161112    
 -0.5628328281733379     -0.2347518289447497      0.7925344070370048    
 -0.2703471541165876      0.9627527271183471     -0.4427492207511869E-02
 -0.3121782567050107E-01  0.3139739907632186     -0.9489182159093714    
 -0.4077329197211767      0.6081290727874014      0.6811261975628158    
 -0.4582147432520364     -0.8429053870461509      0.2820456657264014    
 -0.7819090670207551     -0.5316969079656810     -0.3254483199687261    
 -0.5844204743844931      0.1842323584630249      0.7902601769134996    
 -0.9240911620895188      0.2652649972914450      0.2751181661759406    
  0.1027784905940842     -0.8516199096467614      0.5139845438964520    
 -0.8158465708032709      0.5767502080475972      0.4187565433037242E-01
 -0.4386648913584476      0.8930183742153596     -0.1004554448660567    
  0.5629506103591589      0.2475941909291390     -0.7885326416289915    
 -0.4799030375430478E-01  0.9571393894607104     -0.2856240884245378    
 -0.7895898128258785     -0.3374295180779782      0.5125321919755457    
  0.7353221912968291     -0.3644840430489504      0.5713603568231878    
  0.3569597598224917     -0.1918243924116791     -0.9142117546517105    
 -0.6637263244355682E-01  0.2447558951498094      0.9673103046344167    
  0.1767856187992086     -0.5608911775251483     -0.8087941221103387    
  0.1619567191007131     -0.1813193555613575      0.9699965527964245    
  0.3796804351321356      0.9053302812677015     -0.1903151307637319    
  0.7220524861776243      0.6891331961274180      0.6111992473753065E-01
 -0.2242171641342417     -0.9742163519327161     -0.2508312050979292E-01
  0.5182984497946050     -0.4953064277612436     -0.6971644422651697    
  0.7664722025681155     -0.2722636822843248      0.5817154373053564    
  0.2124788679757049     -0.3760750497008634E-01 -0.9764417065210231    
 -0.4057770128627206      0.8954314888879481     -0.1831596695239431    
  0.6445362290672748     -0.1098187327402632      0.7566458189662189    
 -0.9665600175048532E-01  0.9849213344575480      0.1434837351617708    
  0.2075619582742654      0.9640894624691552     -0.1656790325698687    
 -0.7648460436225581      0.6433577067457315      0.3318720726113360E-01
 -0.2942200617952723     -0.7005665585641282      0.6501084926831828    
  0.6529273895113992      0.6596046464034989      0.3723003283221017    
  0.9883991434282554      0.1480307265713291     -0.3397112392982193E-01
  0.4079222636458780      0.8537774143617971      0.3235174702356998    
  0.8235414102286817     -0.5669179049236632     -0.1958659530185165E-01
 -0.7296639010956160      0.5748416559409762     -0.3703345271952961    
 -0.1036440443464538     -0.9684577201793898      0.2265999918279985    
  0.1740349327805587      0.4674872622724833     -0.8666991991371891    
  0.6766863662762161      0.7316470206180580     -0.8239052686207225E-01
 -0.3738878601771236      0.7262007019469027     -0.5769232258316505    
